0.0889167 -5.7075  4.61
0.139778 29.0906  2.06
0.152944 59.1497  2.27
0.156833 -45.7475  3.87
0.187722 -15.4681  4.89
0.220583 15.1836  2.84
0.243361 20.2067  4.80
0.243972 -18.9328  4.46
0.284833 38.6817  4.61
0.305444 36.7853  4.52
0.323778 -8.82389  3.55
0.3345 -64.875  4.23
0.42925 -77.2544  2.79
0.438056 -42.3061  2.38
0.436694 -43.68  3.93
0.465472 -33.0072  4.81
0.529528 54.5222  4.73
0.523583 -48.8036  4.77
0.52575 -62.9583  4.37
0.526 -62.9658  4.54
0.549972 62.9319  4.16
0.616167 53.8969  3.66
0.614667 33.7194  4.36
0.642583 29.3119  4.38
0.655444 30.8611  3.28
0.675111 56.5375  2.23
0.701056 50.5125  4.81
0.68875 -46.085  4.59
0.724444 47.0247  4.94
0.726472 -17.9867  2.01
0.722556 -57.4631  4.36
0.745417 48.2844  4.50
0.736472 -10.6094  4.75
0.788972 24.2672  4.06
0.818333 57.8161  3.44
0.813889 50.9683  4.89
0.811361 7.585  4.44
0.830222 41.0789  4.53
0.884472 61.1242  4.80
0.883444 -1.14444  4.76
0.916667 58.9728  4.84
0.945111 60.7167  2.47
0.944361 59.1811  4.64
0.945861 38.4994  3.87
0.953444 23.4178  4.42
0.97675 -29.3578  4.27
1.14581 86.2572  4.26
1.04903 7.89  4.28
1.10139 -46.7189  3.30
1.14314 -10.1822  3.44
1.15836 47.2419  4.25
1.16219 35.6206  2.05
1.13972 -55.2458  3.92
1.18503 55.15  4.34
1.19086 21.0347  4.66
1.19433 30.0897  4.51
1.22911 24.5836  4.66
1.25308 -45.5317  4.96
1.26283 -68.8761  4.86
1.33467 58.2317  4.99
1.32442 27.2642  4.76
1.37231 45.5289  4.90
1.43222 68.13  4.74
1.40036 -8.18361  3.59
1.43025 60.2353  2.68
1.42697 -14.5989  4.90
1.46089 45.4069  4.82
2.53069 89.2642  2.02
1.47275 -43.3183  3.41
1.50308 6.14389  4.84
1.52469 15.3458  3.62
1.52083 -49.0728  3.95
1.56553 59.2322  4.72
1.61328 41.4056  4.10
1.63319 48.6283  3.57
1.65581 44.3861  4.98
1.62858 -57.2367  0.46
1.67631 40.5769  4.94
1.69642 42.6136  4.96
1.6905 5.4875  4.44
1.72767 50.6889  4.06
1.71206 -3.69028  5.00
1.73444 -15.9375  3.50
1.75656 9.15778  4.26
1.82639 -10.6864  4.68
1.85764 -10.335  3.72
1.90656 63.6703  3.37
1.88467 29.5789  3.42
1.89214 19.2958  4.83
1.89217 19.2936  4.75
1.93331 68.6853  4.99
1.89258 3.1875  4.63
1.91064 20.8081  2.65
1.89408 -46.3028  4.41
1.94447 -22.5267  4.85
1.93261 -51.6089  3.70
1.96547 23.5961  4.79
1.91558 -67.6475  4.69
1.95278 -47.385  4.82
2.03258 70.9072  4.54
2.05722 72.4214  3.98
2.00006 -21.0778  4.02
1.9795 -61.57  2.86
2.03408 2.76361  4.33
2.06497 42.3297  2.26
2.06519 42.3308  4.84
2.07483 -29.2969  4.69
2.11953 23.4625  2.01
2.14144 37.8592  4.83
2.15903 34.9872  3.00
2.15703 25.94  4.98
2.20617 30.3031  4.94
2.22033 44.2319  4.83
2.21664 8.84667  4.35
2.28422 34.2244  4.87
2.28856 33.8472  4.01
2.27517 -51.5122  3.56
2.32242 -2.9775  3.05
2.42703 50.2786  4.70
2.36253 -68.6594  4.09
2.48442 67.4025  4.53
2.43247 -12.2906  4.89
2.46931 8.46  4.30
2.44975 -47.7039  4.25
2.53475 -15.2447  4.75
2.56406 -28.2325  4.89
2.59789 5.59333  4.86
2.65803 0.328611  4.06
2.65936 -11.8722  4.84
2.70414 40.1939  4.92
2.66331 -42.8917  4.75
2.67778 -39.8553  4.11
2.73664 49.2286  4.13
2.72417 27.7072  4.67
2.72167 3.23583  3.47
2.65986 -68.2669  4.11
2.73536 -13.8589  4.24
2.74903 10.1142  4.27
2.75169 -18.5725  4.46
2.79847 29.2472  4.52
2.84494 55.8956  3.79
2.75906 -67.6167  4.84
2.83306 27.2606  3.62
2.84303 38.3186  4.23
2.81817 -32.4061  4.46
2.85856 35.0597  4.53
2.85061 -21.0042  4.77
2.90428 52.7625  3.96
2.898 -49.8903  3.92
2.84131 -75.0669  4.75
2.94044 -8.89806  3.87
2.97933 39.6628  4.70
2.98433 35.1831  4.94
2.98683 21.3403  4.63
2.98683 21.3403  4.64
2.99522 8.9075  4.70
2.971 -40.3047  3.42
2.97117 -40.3044  4.42
2.97994 -64.0711  4.99
3.03797 4.08972  2.53
3.07992 53.5064  2.93
3.09233 56.7058  4.76
3.03986 -23.6244  4.09
3.08625 38.8403  3.39
3.19897 74.3936  4.88
3.13614 40.9558  2.12
3.15111 49.6133  4.05
3.15825 44.8575  3.81
3.18814 39.6117  4.64
3.19381 19.7267  4.37
3.20117 -28.9872  3.85
3.24833 21.0444  4.89
3.26386 -8.81972  4.80
3.33314 65.6525  4.85
3.31214 34.2225  4.82
3.30614 -22.5114  4.88
3.32267 3.37028  4.84
3.33897 29.0486  4.47
3.35736 43.3297  4.95
3.32525 -21.7578  3.70
3.33211 -43.0697  4.27
3.40536 49.8614  1.79
3.41353 9.02889  3.60
3.4675 49.0628  4.98
3.48447 59.9403  4.22
3.45281 9.73278  3.75
3.49856 58.8789  4.54
3.48944 49.5089  4.67
3.50956 47.9953  4.38
3.51453 12.9367  4.10
3.51028 -5.07528  4.73
3.48961 -62.9378  4.72
3.54883 -9.45833  3.73
3.60814 48.1928  4.23
3.56311 -21.6331  4.28
3.61453 0.401667  4.28
3.61822 -40.2747  4.58
3.71539 47.7875  3.01
3.70625 33.965  4.97
3.76731 63.345  4.79
3.73864 32.2883  3.83
3.70414 -31.9383  5.00
3.75322 42.5786  3.80
3.72078 -9.76333  3.54
3.74792 24.1133  3.70
3.71389 -37.3136  4.59
3.75344 24.4672  4.30
3.83931 71.3325  4.66
3.76375 24.3678  3.87
3.82533 65.5261  4.48
3.77208 23.9483  4.18
3.769 -12.1017  4.42
3.79139 24.105  2.87
3.78078 -23.2497  4.23
3.73667 -64.8072  3.85
3.81936 24.0533  3.62
3.80994 -37.6206  4.86
3.82422 -36.2003  4.17
3.90219 31.8836  2.85
3.95228 61.1089  5.00
3.78736 -74.2392  3.24
3.90483 -2.95472  4.79
3.89517 -24.6125  4.65
3.96422 40.0103  2.89
3.98272 35.7911  4.04
3.96714 -13.5086  2.94
4.01133 12.4903  3.41
3.99872 -24.0164  4.66
3.97908 -61.4003  4.56
4.05258 5.98944  3.91
4.07825 22.0819  4.37
4.10972 50.3514  4.29
4.01494 -62.1594  4.51
4.02172 -61.0789  4.97
4.14433 47.7125  4.03
4.19775 -6.83778  4.05
4.18069 -41.9936  4.93
4.24828 48.4094  4.16
4.24814 40.4839  4.71
4.23231 9.26361  4.84
4.23989 -10.2564  4.86
4.25889 8.89222  4.28
4.30406 50.2956  4.61
4.25453 -7.65278  4.43
4.23336 -42.2944  3.86
4.28767 20.5786  4.95
4.24042 -62.4739  3.35
4.26711 -51.4867  4.25
4.34017 34.5667  4.93
4.32986 15.6275  3.65
4.29822 -33.7983  3.56
4.33922 27.3508  4.95
4.35919 46.4989  4.86
4.27469 -59.3019  4.44
4.38222 17.5425  3.76
4.40158 17.4439  4.80
4.42281 22.2939  4.22
4.42481 17.9281  4.28
4.43844 22.8136  4.28
4.40058 -34.0169  3.96
4.43908 15.6183  4.50
4.44344 14.7136  4.69
4.47397 16.3597  4.97
4.47692 19.1803  3.54
4.47622 15.9622  3.84
4.47769 15.8708  3.39
4.50933 16.1939  4.78
4.53128 -0.0441667  4.89
4.56411 14.8444  4.65
4.5585 -29.7667  4.51
4.61147 41.2647  4.26
4.59867 16.5092  0.86
4.59422 10.1608  4.25
4.60531 -3.3525  3.92
4.5925 -30.5625  3.82
4.56661 -55.045  3.27
4.63594 12.5108  4.27
4.65456 15.9181  4.70
4.63631 -14.3042  3.87
4.674 -19.6717  4.30
4.70406 22.9569  4.29
4.676 -41.8639  4.45
4.75836 -3.25472  4.02
4.83183 37.4883  4.91
4.90083 66.3428  4.29
4.83064 6.96139  3.18
4.84353 8.90028  4.35
4.87719 36.7031  4.77
4.85342 5.605  3.68
4.87553 14.2506  4.74
4.88156 -5.45278  4.39
4.90417 2.44056  3.73
4.95475 53.7522  4.47
4.91492 10.1508  4.67
4.94989 33.1661  2.69
4.9395 13.5144  4.06
4.98758 37.8903  4.95
4.97578 1.71417  4.47
5.05697 60.4422  4.02
5.03281 43.8233  2.99
4.99881 -12.5375  4.78
5.04128 41.0758  3.75
5.02397 -7.17389  4.81
5.05158 21.59  4.64
5.02375 -20.0519  4.92
5.11128 51.5978  5.00
5.07614 15.4039  4.68
5.10856 41.2344  3.18
5.07342 -35.4833  4.55
5.091 -22.3711  3.18
5.12417 18.645  5.00
5.13081 -5.08639  2.79
5.09183 -57.4728  4.72
5.16164 15.5972  4.82
5.15242 -8.75417  4.27
5.22378 38.4844  4.88
5.20494 -11.8692  4.44
5.2215 2.86111  4.44
5.2155 -16.2056  3.29
5.2205 -12.9417  4.36
5.27814 45.9981  0.08
5.24228 -8.20167  0.13
5.30294 33.3717  4.54
5.319 40.0992  4.71
5.29342 -6.84444  3.59
5.32125 22.0964  4.94
5.29139 -34.8953  4.83
5.22928 -67.1856  4.83
5.32622 -13.1769  4.29
5.34078 -21.2397  4.71
5.36269 -0.3825  4.74
5.38053 3.54444  5.00
5.41086 37.3856  4.99
5.40706 17.3833  4.99
5.39911 -7.80806  4.12
5.40794 -2.39694  3.35
5.41244 1.84639  4.96
5.41883 6.34972  1.64
5.43819 28.6075  1.65
5.46056 21.9369  4.89
5.44728 3.09556  4.59
5.47075 -20.7594  2.84
5.49553 -1.09222  4.71
5.51306 5.94806  4.20
5.54544 32.1919  4.79
5.53686 18.5942  4.33
5.53342 -0.299167  2.24
5.53217 -7.30167  4.63
5.52019 -35.4706  3.87
5.54547 -17.8222  2.57
5.58033 9.48944  4.41
5.58561 9.93417  3.66
5.58406 -6.00194  4.78
5.58975 -4.83833  4.59
5.59053 -5.91  2.76
5.60353 -1.20194  1.69
5.61508 9.29056  4.09
5.62739 21.1425  3.03
5.56042 -62.49  3.76
5.64575 -2.6  3.80
5.65308 4.12139  4.59
5.64806 -7.21306  4.81
5.68825 16.5339  4.86
5.67931 -1.94278  2.05
5.67931 -1.94278  4.21
5.68072 -1.12889  4.95
5.66081 -34.0742  2.65
5.70794 1.47472  4.90
5.74106 -22.4483  3.60
5.81956 39.1811  4.53
5.78258 -14.8219  3.54
5.81692 24.5675  4.86
5.79592 -9.66972  2.06
5.82581 12.6511  4.91
5.85067 37.3056  4.74
5.85814 39.1486  3.97
5.74625 -65.7356  4.35
5.78808 -51.0664  3.85
5.91408 55.7069  5.00
5.88878 27.6122  4.59
5.85533 -20.8792  3.85
5.874 1.85528  4.78
5.84931 -35.7683  3.12
5.83044 -56.1667  4.51
5.90636 20.2761  4.41
5.88522 -33.8014  4.87
5.91953 7.40694  0.50
5.99211 54.2847  3.72
5.96656 25.9539  4.82
5.94006 -14.1678  3.72
5.92494 -37.1208  4.97
5.99214 44.9475  1.90
5.99892 45.9369  4.25
5.99533 37.2125  2.62
5.90169 -63.0897  4.65
5.95894 -35.2833  4.36
6.00092 -3.07417  4.52
5.98575 -42.8153  3.96
6.03972 9.6475  4.12
6.03064 -10.5981  4.94
6.06867 23.2633  4.15
6.06533 20.1383  4.63
6.08306 -16.4844  4.93
6.10258 -14.9353  4.67
6.12619 14.7683  4.42
6.20092 16.1306  4.92
6.199 14.2086  4.48
6.31411 69.32  4.80
6.17164 -54.9686  4.81
6.29858 61.5153  4.98
6.24794 22.5067  3.28
6.25628 29.4981  4.35
6.24758 -6.27472  3.96
6.32703 59.0108  4.48
6.27583 -35.1406  4.37
6.33319 -2.94444  4.90
6.33853 -30.0633  3.02
6.38267 22.5136  2.87
6.41494 49.2881  4.75
6.37831 -17.9561  1.97
6.36853 -33.4364  3.85
6.39611 4.59278  4.44
6.39922 -52.6956 -0.72
6.48269 20.2119  4.14
6.48025 -7.03306  4.60
6.46947 -32.5803  4.48
6.54839 7.33278  4.50
6.53092 -23.4183  4.33
6.58425 -22.9647  4.54
6.62853 16.3992  1.92
6.6555 42.4889  4.82
6.61139 -19.2561  3.91
6.58292 -52.9756  4.39
6.63147 -18.2375  4.42
6.65461 -14.1458  4.82
6.62933 -43.1958  3.17
6.68294 9.89556  4.66
6.64378 -48.2203  4.93
6.77058 59.4417  4.87
6.73219 25.1311  2.98
6.73311 13.2278  4.49
6.75481 12.8956  3.36
6.75247 -16.7161 -1.46
6.78883 8.03722  4.76
6.79767 2.41222  4.46
7.00111 76.9775  4.55
6.83067 -32.5086  3.89
6.87981 33.9611  3.60
6.84786 -34.3672  4.99
6.80317 -61.9414  3.27
6.83225 -50.6147  2.93
6.83092 -53.6222  4.40
6.95458 58.4225  4.35
6.91072 13.1778  4.65
6.89244 -20.2242  4.83
6.90314 -12.0386  4.08
6.90217 -24.1839  3.87
6.96028 45.0942  4.90
6.92703 -20.1364  4.69
6.93517 -14.0436  5.00
6.93558 -17.0542  4.37
6.93778 -48.7211  4.95
6.97708 -28.9722  1.50
7.02864 -27.935  3.43
7.0485 -4.23917  5.00
7.06847 20.5703  3.79
7.05039 -23.8333  3.01
7.06261 -15.6333  4.11
7.06492 -49.5839  4.93
7.13983 -26.3931  1.84
7.19425 39.3206  4.99
7.18564 30.2453  4.42
7.17044 -4.23722  4.92
7.1475 -39.6558  4.83
7.19772 -0.492778  4.15
7.22283 16.1589  5.00
7.14583 -70.4992  3.78
7.20933 -46.7594  4.49
7.51792 82.4117  4.96
7.23753 -26.3525  4.65
7.22036 -45.1831  4.89
7.24683 -26.7728  3.82
7.24392 -48.2717  4.76
7.30153 16.5403  3.58
7.27686 -23.3156  4.79
7.27636 -27.8811  4.60
7.28569 -37.0975  2.70
7.33536 21.9822  3.53
7.31119 -24.5589  4.95
7.31178 -24.9542  4.40
7.30511 -36.7342  4.67
7.2805 -67.9575  3.98
7.37042 -19.0167  4.96
7.44522 49.2117  4.63
7.42875 27.7981  3.79
7.40156 -29.3031  2.44
7.42744 9.27611  4.99
7.4525 8.28917  2.89
7.48517 31.7844  4.18
7.46936 8.92556  4.30
7.49658 12.0067  4.55
7.49761 -23.0244  4.86
7.48717 -43.3014  3.25
7.51181 -30.9622  4.65
7.57664 31.8883  1.58
7.57664 31.8883  1.58
7.56328 -14.5239  4.98
7.59869 26.8956  4.06
7.56753 -22.2961  4.45
7.58967 -28.3694  4.63
7.65275 34.5844  4.91
7.59436 -52.5339  4.94
7.62278 -34.9683  4.53
7.65503 5.225  0.37
7.63831 -25.365  4.70
7.71678 58.7103  4.99
7.64703 -26.8019  4.50
7.64714 -26.8036  4.62
7.67308 -15.2636  4.96
7.65758 -38.3083  4.85
7.68744 -9.55111  3.93
7.72186 28.8833  4.29
7.74078 24.3981  3.57
7.75525 28.0261  1.14
7.72564 -28.4111  4.59
7.73011 -28.955  3.95
7.76872 18.51  4.87
7.75422 -37.9686  3.61
7.69703 -72.6061  3.95
7.80142 -25.9372  4.49
7.82156 -24.8597  3.30
7.80561 -47.0778  4.71
7.82064 -46.3733  4.11
7.89158 26.7658  4.98
7.87028 -40.5758  3.73
7.87739 -38.8631  4.49
7.88436 -49.6131  4.63
7.88839 -48.1031  4.24
7.94764 -22.8803  4.20
7.96114 -30.3344  4.79
7.94631 -52.9822  3.47
7.99558 -3.67972  4.93
7.97064 -49.245  4.41
7.99778 -18.3994  4.61
8.02033 -1.3925  4.67
8.03775 2.33444  4.38
8.05861 27.7942  4.94
8.00556 -63.5675  4.82
8.05972 -40.0031  2.25
8.14094 51.5067  4.84
8.12572 -24.3042  2.81
8.14322 -2.98389  4.33
8.15042 -19.245  4.40
8.15811 -47.3456  4.27
8.15886 -47.3367  1.83
8.18783 -12.9269  4.72
8.15019 -61.3019  4.76
8.13219 -68.6172  4.35
8.18931 -39.6186  4.42
8.19053 -42.9872  4.75
8.22219 -15.7883  5.01
8.22486 -35.8997  4.77
8.23411 -40.3481  4.44
8.27525 9.18556  3.54
8.30925 -36.6594  4.45
8.38058 43.1881  4.25
8.35639 -33.0544  4.83
8.37542 -48.4903  4.82
8.37522 -59.5094  1.86
8.42767 -3.90639  3.90
8.30881 -76.9197  4.07
8.50439 60.7181  3.42
8.34408 -77.4844  4.35
8.42897 -66.1369  3.77
8.49097 -44.725  4.99
8.67025 64.3281  4.61
8.62758 5.70361  4.17
8.58878 -58.0092  4.86
8.64594 3.34139  4.43
8.62739 -42.9892  4.14
8.66706 -12.4756  4.98
8.66181 -29.5611  4.89
8.66839 -35.3081  3.98
8.69533 -15.9433  4.88
8.67711 -46.6486  3.81
8.67156 -52.9219  3.60
8.72142 21.4683  4.66
8.68694 -47.3169  4.77
8.72039 3.39861  4.30
8.67694 -59.7611  4.33
8.72789 -7.23361  4.62
8.74472 18.1542  3.94
8.70706 -53.1139  4.86
8.72653 -33.1864  3.68
8.77828 28.76  4.02
8.73997 -42.6492  4.07
8.77958 6.41889  3.38
8.77292 -13.5478  4.32
8.74506 -54.7083  1.96
8.76714 -46.0417  3.91
8.80719 5.83778  4.37
8.77853 -56.7697  4.49
8.84219 -27.71  4.01
8.82992 -45.3078  4.93
8.92322 5.94556  3.10
8.92542 -27.6819  4.89
8.98678 48.0417  3.14
8.91744 -60.6444  3.84
8.97478 11.8578  4.26
8.93872 -52.7236  4.69
9.04242 67.6297  4.76
9.01064 41.7828  3.97
8.94953 -59.2294  4.92
9.0015 -41.2539  4.45
9.06042 47.1567  3.60
9.10881 38.4522  4.58
9.09953 5.09222  4.89
9.06922 -47.0978  3.75
9.04081 -66.3961  4.00
9.17308 67.1344  4.81
9.14783 51.6044  4.48
9.18194 63.5136  4.67
9.13411 -25.8583  4.56
9.13325 -43.4325  2.21
9.094 -70.5386  4.57
9.08592 -72.6028  4.48
9.18453 -44.8678  5.00
9.18275 -58.9669  3.45
9.26981 54.0217  4.84
9.18797 -62.3172  3.98
9.23939 2.31417  3.88
9.26019 -38.57  4.94
9.26253 -37.4133  4.62
9.22003 -69.7172  1.69
9.31406 36.8025  3.82
9.27006 -57.5411  4.34
9.28483 -59.2753  2.25
9.35089 34.3925  3.14
9.32953 -11.975  4.81
9.34136 -9.55583  4.79
9.35822 -25.9656  4.72
9.34919 -62.4047  4.81
9.41089 26.1822  4.46
9.38669 -28.8339  4.68
9.36856 -55.0106  2.50
9.45978 -8.65861  1.97
9.45508 -22.3439  4.68
9.61811 81.3264  4.30
9.52547 63.0619  3.67
9.48578 -2.76889  4.61
9.48742 -35.9517  4.51
9.57467 69.8303  4.57
9.52864 22.9678  4.31
9.54758 51.6772  3.18
9.53242 11.2997  4.97
9.51164 -40.4667  3.60
9.53303 -1.18472  4.57
9.58039 52.0514  4.51
9.57036 36.3975  4.55
9.52036 -57.0344  3.13
9.58439 39.6214  4.81
9.57406 -59.2294  4.09
9.62017 6.83583  5.00
9.64089 4.64917  4.68
9.61381 -49.355  4.35
9.66425 -1.14278  3.91
9.68583 9.89222  3.52
9.65583 -61.3281  4.53
9.68803 -23.5917  4.76
9.704 -23.9156  4.91
9.73669 -27.7694  4.79
9.76417 23.7742  2.98
9.75411 -62.5078  3.69
9.84981 59.0386  3.81
9.78503 -65.0717  2.96
9.86842 54.0642  4.60
9.85794 -14.8467  4.11
9.87939 26.0069  3.88
9.86131 -46.5478  4.58
9.90339 -25.9319  4.88
9.91447 -19.0094  4.94
9.94769 -54.5678  3.53
10.0035 8.04417  4.70
10.0854 -13.0647  4.59
10.1238 35.2447  4.49
10.1222 16.7625  3.41
10.1317 9.9975  4.38
10.1323 -0.371667  4.50
10.1395 11.9672  1.35
10.1489 -51.8111  4.87
10.1764 -12.3542  3.61
10.2456 -42.1219  3.85
10.2781 23.4172  3.41
10.2849 42.9144  3.45
10.229 -70.0378  3.33
10.2847 -61.3322  3.40
10.3289 19.4708  4.80
10.3329 19.8417  2.61
10.3329 19.8403  3.80
10.3269 -55.0294  4.57
10.3721 41.4994  3.05
10.4022 65.5664  4.99
10.3487 -56.0433  4.50
10.3721 -41.65  4.83
10.3828 -66.9017  4.99
10.4319 33.7961  4.74
10.4348 -16.8364  3.79
10.4647 36.7072  4.21
10.4066 -74.0317  4.00
10.4525 -31.0678  4.25
10.4568 -57.6389  4.66
10.5104 55.9806  4.84
10.4646 -58.7394  3.81
10.5849 75.7128  4.84
10.5538 40.4253  4.75
10.5468 9.30667  3.85
10.5227 -53.7156  4.89
10.5056 -71.9928  4.75
10.5337 -61.6853  3.32
10.5172 -73.2217  4.93
10.5931 -57.5575  4.45
10.6205 -27.4128  4.89
10.6259 -13.3844  4.82
10.6453 31.9761  4.72
10.6217 -48.2258  3.84
10.643 -16.8767  4.91
10.5911 -78.6075  4.11
10.6459 -59.1831  4.66
10.6551 -55.6033  4.28
10.7178 69.0761  5.00
10.7039 -64.4661  4.82
10.7159 -64.3944  2.77
10.7256 -60.5664  4.58
10.7353 -63.9611  4.83
10.7795 -49.42  2.69
10.7809 -64.3833  4.86
10.8271 -16.1936  3.11
10.7629 -80.54  4.46
10.8885 34.2147  3.83
10.8996 43.19  4.71
10.8916 -58.8533  3.78
10.9269 24.7497  4.50
10.9453 -37.1378  4.60
10.9962 -18.2989  4.07
11.0093 3.6175  4.84
11.0026 -42.2258  4.39
11.0124 6.10139  4.99
11.0307 56.3822  2.37
11.0304 -2.48444  4.75
11.0388 20.1797  4.42
11.0621 61.7508  1.79
11.0836 7.33611  4.63
11.0889 -27.2933  4.94
11.109 -62.4239  4.61
11.161 44.4983  3.01
11.1431 -58.975  3.83
11.1943 -22.8258  4.48
11.21 -60.3175  4.62
11.2351 20.5236  2.56
11.2373 15.4294  3.35
11.2534 23.0956  4.63
11.2777 -3.65167  4.47
11.303 31.5292  4.87
11.303 31.5292  4.41
11.308 33.0942  3.49
11.3188 38.1856  4.79
11.3223 -14.7786  3.56
11.3523 6.02944  4.05
11.3501 -54.4908  3.90
11.3804 43.4828  5.03
11.3868 -36.165  5.00
11.3987 10.5292  3.94
11.4101 -10.8594  4.83
11.4147 -17.6842  4.08
11.4656 2.85611  4.91
11.5052 -3.00361  4.77
11.5234 69.3311  3.85
11.55 -31.8575  3.54
11.5793 -54.2642  4.62
11.5963 -63.0197  3.13
11.6113 -9.80222  4.70
11.6158 -0.823889  4.30
11.6702 -34.7447  4.70
11.6816 -62.0897  4.94
11.746 -18.3508  4.72
11.7547 8.25833  4.85
11.7643 6.52944  4.04
11.7675 47.7794  3.72
11.7601 -66.7286  3.64
11.7752 -61.1783  4.10
11.7753 -40.5003  4.88
11.7998 20.2189  4.53
11.804 -66.8147  4.72
11.8176 14.5719  2.14
11.8281 -63.7883  4.34
11.8323 -70.2256  4.98
11.8449 1.76472  3.60
11.8523 -45.1739  4.46
11.8642 -65.2061  4.91
11.8818 -33.9078  4.28
11.8972 53.6947  2.44
11.9937 -78.2217  4.91
12.0145 6.61417  4.67
12.0504 -63.3128  4.34
12.072 -63.1656  4.73
12.0868 8.73306  4.12
12.1147 -64.6136  4.15
12.1348 -50.6611  4.47
12.1393 -50.7222  2.60
12.1402 -24.7289  4.02
12.1687 -22.6197  2.98
12.1942 -52.3683  3.96
12.2524 -58.7489  2.79
12.2571 57.0325  3.31
12.2634 -17.5419  2.58
12.2724 23.9453  4.95
12.275 33.0614  4.98
12.2928 -67.9606  4.02
12.3058 -79.3119  4.26
12.3073 -64.0031  4.05
12.3166 -55.1431  5.00
12.3318 -0.666667  3.90
12.3391 3.3125  4.96
12.3453 17.7928  4.74
12.356 -60.4011  3.59
12.3751 25.8461  4.81
12.4004 51.5622  4.80
12.4419 -63.1225  4.86
12.4433 -63.0989  1.58
12.4435 -63.0994  2.09
12.4421 -51.4506  4.83
12.44 27.2681  4.95
12.4489 28.2683  4.36
12.4498 26.8256  4.99
12.4673 -50.2308  3.91
12.4977 -16.5156  2.94
12.5194 -57.1131  1.63
12.5018 69.2011  4.95
12.5411 -72.1328  3.88
12.5345 -16.1961  4.32
12.5624 41.3575  4.27
12.5731 -23.3967  2.64
12.558 69.7881  3.89
12.5808 22.6292  4.81
12.5789 70.0217  4.94
12.6197 -69.1356  2.70
12.6284 -48.5411  3.86
12.6541 -7.99556  4.67
12.6646 -39.9875  4.64
12.6919 -48.9594  2.17
12.6991 -59.6856  4.94
12.6943 -1.44944  3.65
12.6943 -1.44944  3.68
12.6981 10.2356  4.88
12.7098 -48.8131  4.66
12.7605 -60.9811  4.69
12.7714 -68.1081  3.06
12.7522 45.4403  4.87
12.7729 -56.4889  4.66
12.7954 -59.6886  1.25
12.8448 -33.9992  4.91
12.8616 27.5406  4.94
12.8852 -48.9431  4.33
12.8906 -40.1789  4.27
12.8887 21.2403  4.90
12.9109 -59.1464  4.63
12.9099 -57.1778  4.04
12.9059 -9.53889  4.80
12.9005 55.9597  1.77
12.9267 3.3975  3.38
12.9338 38.3183  2.88
12.9821 17.4092  4.79
13.0379 -71.5489  3.62
13.0046 30.785  4.90
13.0121 56.3664  4.93
13.0363 10.9592  2.79
13.0592 -49.5272  4.85
13.1046 -48.4633  4.71
13.1151 -49.9061  4.27
13.1196 27.6247  4.82
13.1509 -23.1181  4.95
13.1658 -5.53889  4.38
13.2048 -59.9208  4.60
13.2009 -37.8031  4.85
13.1979 27.8781  4.26
13.2374 -59.1033  4.92
13.2541 -67.8947  4.80
13.2286 40.1528  4.92
13.2869 -66.7836  4.87
13.2934 5.47  4.80
13.2924 40.5725  4.73
13.3067 -18.3114  4.74
13.3153 -23.1717  3.00
13.3433 -36.7122  2.73
13.3772 -60.9883  4.54
13.4001 -64.5358  4.53
13.3988 54.9253  2.27
13.399 54.9217  3.95
13.4199 -11.1614  0.97
13.4204 54.9881  4.02
13.4575 -15.9736  4.75
13.4738 13.7786  4.98
13.4952 -23.2811  4.97
13.5174 -39.4072  3.88
13.5327 -6.25583  4.69
13.5688 3.65889  4.94
13.5782 -0.596111  3.38
13.5799 37.1825  4.98
13.5742 49.0158  4.70
13.6243 36.2947  4.83
13.6648 -53.4664  2.30
13.6789 54.6817  4.66
13.7614 -33.0436  4.23
13.7776 -51.4328  4.65
13.7877 17.4567  4.50
13.8251 -41.6878  3.41
13.7923 49.3133  1.86
13.8241 -34.4506  4.19
13.8269 -42.4739  3.04
13.8312 -18.1342  4.97
13.8246 15.7978  4.07
13.8285 21.2642  4.91
13.8638 -32.9944  4.56
13.8632 34.4442  4.75
13.8868 -31.9275  4.74
13.8572 64.7231  4.66
13.9256 -47.2883  2.55
13.9114 18.3978  2.68
13.9608 -63.6867  4.71
13.9712 -42.1008  3.83
13.978 -44.8036  3.87
14.0287 -45.6033  4.33
14.0274 1.54444  4.26
14.0637 -60.3728  0.61
14.1008 -41.1794  4.36
14.1062 -26.6822  3.28
14.1113 -36.37  2.05
14.0731 64.3758  3.65
14.1652 -53.4389  4.75
14.1807 -16.3019  4.91
14.3038 -81.0075  4.91
14.1733 25.0917  4.83
14.2149 -10.2736  4.21
14.1474 77.5475  4.82
14.2247 51.79  4.54
14.2669 -6.00056  4.09
14.4486 -83.6678  4.32
14.261 19.1825 -0.05
14.2694 51.3672  4.75
14.273 46.0883  4.18
14.3234 -46.0578  3.55
14.3387 -56.3867  4.35
14.3185 -13.3711  4.52
14.2999 35.5094  4.81
14.3451 -45.1872  4.77
14.3426 -37.8853  4.05
14.3292 16.3069  4.86
14.3769 -58.4594  4.92
14.3839 -39.5122  4.42
14.3849 -27.7539  4.75
14.4356 -45.2214  4.56
14.4363 -45.3794  4.35
14.4199 51.8508  4.06
14.4695 -29.4917  4.97
14.47 -2.22806  4.82
14.5436 -50.4569  4.42
14.5305 30.3714  3.59
14.4587 75.6958  4.25
14.5346 38.3081  3.02
14.5918 -42.1578  2.31
14.578 29.745  4.47
14.6314 -49.4256  4.05
14.6601 -60.8353 -0.01
14.6601 -60.8353  1.33
14.7084 -64.9753  3.19
14.6988 -47.3881  2.30
14.7977 -79.0447  3.83
14.6993 -37.7936  4.00
14.6788 16.4183  4.94
14.6858 13.7283  4.83
14.6858 13.7283  4.43
14.6941 8.16167  4.86
14.7276 -35.1739  4.05
14.7176 -5.65833  3.88
14.7498 -35.1919  4.92
14.7237 26.5278  4.79
14.7667 -25.4431  4.94
14.754 16.9644  4.60
14.7498 27.0742  2.70
14.7708 1.89278  3.73
14.8381 -27.9603  4.41
14.8606 -43.5753  4.33
14.8479 -16.0419  2.75
14.8503 -2.29917  4.94
14.8564 19.1011  4.54
14.8451 74.1556  2.08
14.953 -4.34639  4.49
14.9755 -43.1339  2.68
14.986 -42.1042  3.13
15.0162 -8.51889  4.93
14.9597 65.9322  4.54
15.0351 25.0081  4.82
15.0483 2.09111  4.40
15.0324 40.3906  3.52
15.0678 -25.2819  3.21
15.0853 -47.0511  4.72
15.0853 -47.0511  4.82
15.0741 26.9475  4.55
15.0631 47.6544  4.76
15.1474 -45.2797  4.05
15.1217 24.8692  4.93
15.1989 -48.7378  3.87
15.2047 -52.0992  3.41
15.2137 -44.5006  4.82
15.2037 -19.7917  4.54
15.2437 -31.5192  4.91
15.2941 -63.6106  4.86
15.2919 -58.8011  4.07
15.3152 -68.6794  2.89
15.2584 33.3147  3.49
15.3089 -47.875  4.27
15.2834 -9.38306  2.62
15.2971 -30.1486  4.33
15.3562 -40.6478  3.22
15.3689 -47.9278  5.00
15.3896 -59.3208  4.51
15.3634 -36.2614  3.56
15.378 -44.6894  3.37
15.3859 -36.8583  4.54
15.4033 -10.3222  4.94
15.4223 -38.7336  4.60
15.4081 37.3772  4.32
15.3454 71.8339  3.05
15.4154 58.9658  3.29
15.4638 29.1056  3.68
15.612 -66.3172  4.11
15.5856 -41.1667  2.78
15.5696 -10.0647  4.62
15.5488 31.3589  4.13
15.5981 -44.9586  4.54
15.5921 -14.7894  3.91
15.58 10.5375  3.80
15.58 10.5392  3.80
15.5781 26.7147  2.24
15.6171 -28.135  3.57
15.6342 -42.5672  4.33
15.6443 -29.7778  3.65
15.6628 -34.4117  4.67
15.6713 -23.8181  4.96
15.6864 -44.6611  4.64
15.5235 77.3492  4.96
15.6991 -19.6789  4.72
15.7114 -34.7106  4.75
15.6925 19.6703  4.53
15.7124 26.2956  3.85
15.7378 6.42556  2.65
15.7698 15.4217  3.67
15.774 7.35306  4.43
15.8123 18.1414  4.09
15.827 -3.43028  3.53
15.8493 -33.6272  3.95
15.8496 -25.7514  4.68
15.8266 26.0683  4.63
15.8469 4.47778  3.70
15.919 -63.4306  2.85
15.8544 20.9778  4.78
15.8538 35.6572  4.82
15.7343 77.7944  4.32
15.8935 -25.3272  4.59
15.8971 -16.7294  4.16
15.8779 42.4517  4.62
15.9481 -29.2139  3.86
15.9409 15.6617  3.86
15.9698 -14.2794  4.87
15.9917 -41.7442  4.99
15.9808 -26.1142  2.91
15.9598 26.8778  4.16
16.002 -38.3969  3.41
16.0055 -22.6217  2.32
15.9917 25.9203  2.00
15.9631 54.7497  4.95
16.0589 -57.7753  4.63
16.0535 -49.2297  4.65
16.0567 -38.6025  4.89
16.0557 -25.8653  5.00
16.0241 29.8511  4.98
16.0383 22.8044  4.83
16.0728 -11.3731  4.77
16.1081 -45.1731  4.73
16.0466 46.0367  4.76
16.0906 -19.8053  2.58
16.0907 -19.8019  4.92
16.0314 58.5653  4.03
16.1098 -36.8022  4.23
16.1134 -20.6692  3.97
16.1234 -20.8686  4.33
16.1346 17.0469  5.00
16.1495 36.4908  4.76
16.3391 -78.6958  4.68
16.1461 44.935  4.27
16.2246 -54.6306  4.94
16.1999 -19.4606  4.01
16.205 -27.9264  4.59
16.2573 -63.6856  3.85
16.2 -10.0642  4.93
16.2391 -3.69444  2.75
16.2836 -50.0681  4.98
16.3049 -28.6142  4.77
16.3306 -50.1556  4.02
16.3053 -4.6925  3.23
16.3439 -24.1694  4.57
16.3531 -25.5928  2.88
16.329 46.3133  3.91
16.3679 1.02917  4.82
16.3653 19.1531  3.76
16.4745 -70.0844  4.91
16.5575 -78.8969  3.89
16.3683 30.8922  4.85
16.4017 -20.0375  4.50
16.4531 -47.555  4.47
16.2917 75.7553  4.95
16.4236 14.0333  4.58
16.4504 -18.4564  4.43
16.4634 -8.37167  4.63
16.3998 61.5142  2.74
16.4901 -26.4319  0.91
16.5034 -25.115  4.79
16.523 -34.7044  4.23
16.5189 -16.6128  4.27
16.5036 21.4894  2.77
16.5152 1.98389  3.83
16.5356 -21.4664  4.45
16.568 -44.0453  4.91
16.5434 11.4881  4.85
16.4663 68.7681  5.01
16.7179 -77.5175  4.24
16.598 -28.2161  2.81
16.6062 -35.2556  4.16
16.5684 42.4369  4.20
16.6193 -10.5672  2.56
16.6929 -17.7422  4.96
16.6458 48.9283  4.90
16.6881 31.6028  2.81
16.8111 -69.0278  1.92
16.7149 38.9222  3.50
16.6819 64.5889  4.83
16.8297 -59.0414  3.76
16.7549 56.7819  4.84
16.836 -34.2933  2.29
16.8305 -10.7831  4.66
16.8645 -38.0475  3.04
16.8722 -38.0175  3.57
16.8206 45.9833  4.82
16.8999 -42.3619  4.73
16.9097 -42.3614  3.59
16.9001 10.1653  4.38
16.977 -55.99  3.13
16.9931 -53.1606  4.06
16.9611 9.375  3.20
16.9338 65.1347  4.90
17.0176 -4.2225  4.82
16.7661 82.0372  4.23
17.0048 30.9264  3.92
17.0804 -34.1231  4.87
17.0522 14.0919  4.98
17.0896 12.7408  4.91
17.1729 -15.7247  2.42
17.2025 -43.2392  3.34
17.1464 65.7147  3.17
17.2441 14.3903  3.48
17.2505 24.8392  3.13
17.2768 -0.445278  4.72
17.3665 -67.7703  4.78
17.2508 36.8092  3.18
17.2887 33.1  4.78
17.2945 37.2914  4.66
17.35 -21.1128  4.38
17.3471 -12.8467  4.31
17.3386 18.0569  5.00
17.3668 -24.9994  3.26
17.4216 -55.5297  2.85
17.4232 -56.3775  3.34
17.3947 37.1458  4.52
17.4395 -24.1753  4.16
17.4559 -29.8669  4.27
17.4438 -5.08667  4.54
17.4419 4.14028  4.31
17.5183 -60.6836  3.62
17.5127 -37.2958  2.68
17.5307 -49.8761  2.95
17.5236 -23.9628  4.81
17.5123 26.1106  4.41
17.5601 -37.1036  1.63
17.5072 52.3014  2.81
17.5943 -46.5056  4.59
17.6091 -38.6353  4.29
17.6219 -42.9978  1.87
17.5362 55.1842  4.90
17.5378 55.1728  4.87
17.5822 12.56  2.07
17.6264 -15.3986  3.52
17.6307 -8.11889  4.63
17.6732 -49.4156  4.77
17.7081 -39.03  2.41
17.6902 -12.8753  4.24
17.7622 -64.7239  3.62
17.6577 46.0064  3.80
17.7238 -21.6833  4.87
17.6158 68.7581  4.80
17.7245 4.56722  2.78
17.7931 -40.1269  3.03
17.7926 -27.8308  4.54
17.7743 27.7208  3.42
17.8196 -31.7033  4.83
17.7982 2.70722  3.75
17.8309 -37.0433  3.21
17.8364 -40.0906  4.81
17.6989 72.1489  4.58
17.9465 -44.3422  4.86
17.9632 -41.7161  4.88
17.8921 56.8725  3.75
17.9375 37.2506  3.88
17.9838 -9.77361  3.34
17.9965 -23.8161  4.75
17.9627 29.2478  3.70
17.9434 51.4889  2.22
17.975 30.1894  4.41
18.008 -3.69028  4.62
18.0044 4.36861  4.60
18.0009 16.7508  4.67
18.0107 2.93139  3.93
18.0292 1.30528  4.42
18.0251 21.5956  4.96
18.0837 -29.58  4.69
18.1105 -50.0917  3.66
18.143 -63.6683  4.35
18.0968 -30.4242  2.99
18.0909 2.49944  4.03
18.1347 -28.4569  4.56
18.1218 8.73389  4.63
18.1225 9.56389  3.73
18.1257 28.7625  3.83
18.1871 -45.9542  4.53
18.1459 20.8144  4.35
17.5368 86.5864  4.36
18.1246 43.4617  5.00
18.1954 -23.7011  4.98
18.2294 -21.0589  3.85
18.1984 31.4053  4.97
18.2938 -36.7617  3.11
18.3009 -27.0425  4.63
18.3871 -61.4939  4.36
18.3499 -29.8281  2.70
18.3478 3.37722  4.84
18.3383 21.9614  4.96
18.3551 -2.89889  3.25
18.331 36.0644  4.34
18.4029 -34.3847  1.85
18.3943 -8.93444  4.68
18.3949 21.7697  3.84
18.4225 -20.5417  4.82
18.4495 -45.9683  3.51
18.4805 -49.0708  4.13
18.4661 -25.4217  2.81
18.5229 -62.2783  4.64
18.3459 71.3378  4.22
18.3984 58.8006  4.99
18.3509 72.7328  3.58
18.4866 -14.5658  4.71
18.5293 -45.915  4.96
18.433 65.5636  4.82
18.5584 -42.3125  4.64
18.5868 -8.24417  3.83
18.5429 57.0456  4.77
18.7173 -71.4283  4.01
18.6156 38.7836  0.03
18.7574 -64.8714  4.79
18.7045 -9.0525  4.72
18.7387 -35.6422  4.87
18.7253 -8.27528  4.89
18.7609 -26.9908  3.16
18.7462 37.605  4.36
18.761 20.5464  4.19
18.7862 -4.74806  4.22
18.7679 26.6619  4.84
18.7837 18.1814  4.36
18.8703 -62.1878  4.22
18.8346 33.3628  3.42
18.9492 -67.2336  4.44
18.9028 -22.745  4.83
18.9186 -22.6714  4.98
18.9211 -26.2967  2.03
18.8533 59.3883  4.67
18.9124 22.6453  4.60
18.9743 -52.9383  4.87
18.8871 50.7081  4.93
18.9084 36.8989  4.30
18.937 4.20361  4.62
18.9374 4.20194  4.98
18.951 -5.84611  4.83
18.9621 -21.1067  3.51
18.9787 -37.1072  4.87
18.9222 43.9461  4.00
18.9937 15.0683  4.02
18.9824 32.6894  3.24
18.9066 71.2972  4.82
19.0519 -42.0953  4.75
19.0002 32.1456  4.98
19.028 -5.73889  4.02
19.0435 -29.8803  2.59
19.078 -21.7417  3.77
19.1156 -27.6706  3.31
19.0901 13.8633  2.99
19.1041 -4.8825  3.43
19.1391 -40.4967  4.59
19.1578 -37.9044  4.11
19.1671 -39.3408  4.11
19.1627 -21.0236  2.88
19.259 -25.2567  4.83
19.2293 39.1461  4.38
19.2939 -18.9531  4.93
19.2703 21.3906  4.77
19.232 57.705  4.99
19.2092 67.6617  3.07
19.2728 38.1336  4.38
19.285 53.3686  3.76
19.3773 -44.4589  4.01
19.3612 -17.8472  3.93
19.3621 -15.955  4.61
19.387 -44.7997  4.29
19.3981 -40.6161  3.97
19.2591 73.3556  4.45
19.3444 65.7144  4.59
19.4021 29.6214  4.97
19.4249 3.11472  3.36
19.4419 0.338611  4.72
19.4784 24.665  4.45
19.512 27.9597  3.14
19.4951 51.7297  3.78
19.5869 -48.0992  4.90
19.5295 34.4531  4.74
19.5681 7.37889  4.45
19.5763 19.7733  4.99
19.6118 -24.8836  4.60
19.6148 -7.0275  4.96
19.612 -1.28639  4.36
19.5393 69.6611  4.69
19.6073 50.2211  4.47
19.6563 30.1533  4.70
19.6683 18.0139  4.38
19.6841 17.4758  4.38
19.7727 -19.7611  4.86
19.7379 37.3544  4.89
19.771 10.6133  2.72
19.7496 45.1308  2.87
19.7738 33.7278  4.99
19.7898 18.5342  3.81
19.8163 19.1419  5.00
19.8464 8.86833  0.76
19.8427 32.9142  4.24
19.8511 22.61  4.96
19.8745 1.00556  3.90
19.921 -41.8683  4.13
19.8029 70.2678  3.84
20.0098 -72.9106  3.96
19.891 24.0797  4.58
19.9041 8.46139  4.68
19.9306 -26.2994  4.70
19.9219 6.40667  3.72
19.9491 -27.17  4.50
19.931 38.4867  4.95
19.9384 35.0833  3.93
19.9825 -26.1956  4.82
19.9271 52.4389  4.92
19.9956 -35.2764  4.37
19.932 58.8461  4.96
19.9793 19.4922  3.47
20.0443 -27.71  4.54
20.0593 -37.9408  4.77
20.0183 27.7536  4.65
20.0721 -32.0561  4.99
20.1453 -66.1822  3.56
20.1231 -52.8808  4.97
20.0469 67.8736  4.50
20.1571 36.8397  4.93
20.1884 -0.821389  3.22
20.2379 15.1975  4.95
20.2216 46.8158  4.83
20.2272 46.7414  3.80
20.2422 36.8064  4.99
20.2544 25.5919  4.77
20.2233 56.5678  4.30
20.2628 27.8142  4.52
20.2941 -12.5083  4.27
20.1481 77.7114  4.39
20.2578 47.7144  3.98
20.3009 -12.545  3.58
20.2964 38.0331  4.82
20.3444 -12.7592  4.76
20.3502 -14.7814  3.08
20.4274 -56.7353  1.94
20.3704 40.2567  2.23
20.3976 32.1903  4.44
20.481 -17.8136  4.81
20.4941 -2.88556  4.91
20.4899 30.3686  4.01
20.5009 48.9517  4.95
20.593 -60.5817  4.76
20.493 62.9942  4.22
20.5535 11.3033  4.04
20.6264 -61.53  4.88
20.565 35.2508  4.63
20.6261 -47.2914  3.11
20.5884 14.6742  4.69
20.6121 -2.54972  4.89
20.6258 14.5953  3.63
20.6389 -1.10528  4.33
20.642 21.2011  4.82
20.6606 15.9119  3.77
20.7493 -66.2031  3.42
20.7339 -51.9211  4.51
20.6905 45.2803  1.25
20.7243 15.0744  4.44
20.7682 -25.2711  4.13
20.7479 25.2708  4.91
20.761 30.7197  4.23
20.7776 16.1242  4.27
20.7702 33.9703  2.46
20.7946 -9.49583  3.77
20.7956 -5.02778  4.44
20.8247 -46.2269  4.89
20.7558 57.5797  4.52
20.7863 34.3742  4.92
20.7548 61.8389  3.43
20.7901 36.4908  4.54
20.8328 -33.78  4.90
20.8156 46.1142  4.86
20.8637 -26.9192  4.12
20.9135 -58.4542  3.65
20.8775 -8.98333  4.75
20.8688 27.0969  4.57
20.8874 44.3872  4.77
20.9529 41.1672  3.94
21.0215 -32.2578  4.67
20.9971 47.5211  4.75
21.0734 -19.855  4.84
21.0991 -17.2328  4.07
21.0822 43.9278  3.73
21.1188 -25.0058  4.49
21.11 47.6483  4.60
21.1599 -11.3717  4.52
21.1724 10.1314  4.68
21.2156 30.2269  3.21
21.2413 10.0069  4.49
21.2465 38.0456  3.73
21.2637 5.24778  3.90
21.2989 -32.1725  4.71
21.3311 -53.4497  4.39
21.2903 39.3947  4.24
21.2986 34.8969  4.42
21.346 -40.8097  4.82
21.3075 43.9461  5.00
21.3096 62.5856  2.45
21.3708 -16.8347  4.27
21.3681 19.8044  4.09
21.4408 -65.3664  4.22
21.4444 -22.4114  3.74
21.4787 -21.8072  4.50
21.4991 23.6389  4.57
21.5259 -5.57111  2.89
21.4776 70.5608  3.23
21.5663 45.5919  4.02
21.6913 -77.39  3.76
21.5796 38.5342  4.91
21.618 -19.4661  4.68
21.6292 -7.85417  4.69
21.6682 -16.6625  3.67
21.632 62.0819  4.73
21.7109 -18.8664  4.73
21.7016 51.1897  4.67
21.7491 -33.0258  4.34
21.7364 9.875  2.39
21.7357 28.7428  4.73
21.7418 17.35  4.35
21.7441 25.645  4.12
21.7251 58.78  4.08
21.6987 71.3117  4.57
21.784 -16.1272  2.83
21.7574 61.1208  4.29
21.7799 49.3097  4.24
21.8988 -37.365  3.01
21.9653 -54.9928  4.40
21.9442 63.6258  4.90
22.0559 -56.7861  4.69
22.0552 -2.15528  4.69
22.1019 -39.5433  4.46
22.0946 5.05861  4.84
22.0964 -0.319722  2.94
22.0631 64.6281  4.29
22.1073 -13.8697  4.25
22.1372 -46.9611  1.71
22.1168 25.345  3.76
22.1397 -32.9886  4.50
22.1405 -34.0439  4.99
22.1691 -32.5486  4.92
22.17 6.19778  3.55
22.1664 33.1783  4.29
22.1809 58.2014  3.35
22.1634 72.3414  4.79
22.2313 39.715  4.49
22.2603 -41.3467  4.79
22.2505 57.0436  4.19
22.2661 37.7489  4.15
22.2805 -7.78333  4.16
22.3084 -60.2597  2.86
22.3609 -1.38722  3.84
22.3553 28.3306  4.81
22.3504 46.5367  4.56
22.3926 52.2292  4.44
22.4213 1.3775  4.64
22.4556 -64.9667  4.48
22.4086 49.4764  4.58
22.4643 4.69556  4.80
22.4878 -43.4958  3.97
22.4804 -0.0202778  4.59
22.4806 -0.02  4.42
22.4959 -43.7494  4.11
22.4862 58.4153  3.75
22.4922 47.7069  4.37
22.5108 -10.6781  4.81
22.5251 -32.3461  4.29
22.5081 43.1236  4.51
22.55 -61.9825  4.81
22.5215 50.2825  3.77
22.5893 -0.1175  4.00
22.6229 51.5453  4.63
22.6543 39.0503  4.89
22.6776 -27.0436  4.18
22.7676 -81.3817  4.15
22.6752 44.2764  4.46
22.691 10.8314  3.41
22.7111 -46.8847  2.11
22.6959 29.3075  4.79
22.725 -41.4144  4.85
22.7264 -18.8306  4.69
22.7167 30.2214  2.95
22.7605 -53.5  4.85
22.7782 12.1728  4.19
22.7755 23.5656  3.93
22.8092 -51.3169  3.49
22.8265 -13.5925  3.98
22.8334 24.6017  3.48
22.828 66.2006  3.54
22.8754 -32.8756  4.46
22.8769 -7.57972  3.74
22.8672 43.3125  4.94
22.7913 83.1539  4.74
22.9108 -15.8208  3.28
22.9204 8.81611  4.90
22.9324 -32.5397  4.21
22.9405 49.7336  4.94
22.9608 -29.6222  1.16
23.0147 -52.7542  4.12
22.9068 84.3464  4.72
23.0014 56.9456  5.00
23.032 42.3261  3.62
23.0646 3.82  4.52
23.0629 28.0828  2.42
23.0697 50.0522  4.66
23.0793 15.2053  2.48
23.1146 -43.5206  4.28
23.1113 -23.7431  4.48
23.1167 9.40944  4.51
23.1185 25.4683  4.74
23.1102 59.42  4.85
23.1574 -21.1725  3.64
23.1652 -22.4575  4.68
23.1316 75.3878  4.42
23.1726 -45.2467  3.89
23.2091 49.4064  4.53
23.2387 -6.04889  4.22
23.2648 -9.08778  4.25
23.2905 -58.2356  3.99
23.2861 3.28222  3.70
23.2984 -9.1825  4.40
23.2957 49.0153  4.86
23.3137 -32.5319  4.41
23.316 -9.61056  4.98
23.3104 68.1117  4.76
23.3439 23.7403  4.60
23.3828 -20.1006  3.98
23.4139 62.2831  4.98
23.423 23.4042  4.40
23.4341 -20.6419  4.39
23.4489 1.25556  4.94
23.4661 6.37889  4.30
23.4859 12.7606  4.56
23.5005 58.5492  4.91
23.5495 -37.8186  4.37
23.5546 -20.9144  4.72
23.5659 31.3256  4.98
23.5846 -42.6153  4.71
23.6308 -45.4925  4.74
23.6261 46.4583  3.82
23.6356 43.2681  4.29
23.6631 -14.2217  5.00
23.6658 5.62639  4.13
23.6558 77.6325  3.21
23.6734 44.3339  4.14
23.696 -17.8164  4.83
23.7008 1.78  4.51
23.712 -14.545  4.51
23.7332 29.3617  4.93
23.7672 46.4203  4.95
23.7843 58.6519  4.87
23.8154 -28.1303  4.57
23.9064 57.4994  4.54
23.9598 -64.2986  5.00
23.9626 25.1414  4.66
23.9735 51.3886  4.80
23.9779 -3.55611  4.86
23.9834 55.755  4.88
23.9885 6.86333  4.01
23.9986 -65.5772  4.50
0.0266111 -77.0658  4.78
0.0326389 -6.01417  4.41
0.0623056 -17.3361  4.56
0.075 -10.5097  4.98
